# .PCD v0.7 - Point Cloud Data file format
VERSION 0.7
FIELDS x y z
SIZE 4 4 4
TYPE F F F
COUNT 1 1 1
WIDTH 1551
HEIGHT 1
VIEWPOINT 0 0 0 1 0 0 0
POINTS 1551
DATA ascii
-1.4719884 -12.659101 23.985001
-1.492916 -12.796423 24.326
-1.492916 -12.753768 24.326
-1.5035946 -12.802034 24.500002
-1.5035946 -12.759074 24.500002
-1.5035946 -12.716114 24.500002
-1.5035946 -12.673155 24.500002
-1.5035946 -12.630195 24.500002
-1.5035946 -12.587234 24.500002
-1.4299316 -12.995555 23.985001
-1.4199754 -12.863307 23.818001
-1.4101981 -12.73326 23.654001
-1.4101981 -12.691783 23.654001
-1.4101981 -12.650307 23.654001
-1.4199754 -12.696251 23.818001
-1.4199754 -12.654487 23.818001
-1.4199754 -12.612723 23.818001
-1.4299316 -12.659101 23.985001
-1.4502612 -12.796423 24.326
-1.4502612 -12.753768 24.326
-1.4502612 -12.711113 24.326
-1.4502612 -12.668459 24.326
-1.440007 -12.536531 24.154001
-1.440007 -12.494179 24.154001
-1.4606347 -12.630195 24.500002
-1.4606347 -12.587234 24.500002
-1.3878748 -12.995555 23.985001
-1.3782115 -12.863307 23.818001
-1.3687217 -12.73326 23.654001
-1.3687217 -12.691783 23.654001
-1.3687217 -12.650307 23.654001
-1.3782115 -12.696251 23.818001
-1.3782115 -12.654487 23.818001
-1.3782115 -12.612723 23.818001
-1.4076065 -12.839078 24.326
-1.3976538 -12.705944 24.154001
-1.3976538 -12.663591 24.154001
-1.3976538 -12.621238 24.154001
-1.3976538 -12.578885 24.154001
-1.3878748 -12.448816 23.985001
-1.3782115 -12.320375 23.818001
-1.3782115 -12.278611 23.818001
-1.345818 -12.995555 23.985001
-1.3364475 -12.863307 23.818001
-1.3364475 -12.821543 23.818001
-1.3272454 -12.691783 23.654001
-1.3272454 -12.650307 23.654001
-1.3272454 -12.60883 23.654001
-1.3364475 -12.654487 23.818001
-1.3364475 -12.612723 23.818001
-1.3553007 -12.748298 24.154001
-1.3553007 -12.705944 24.154001
-1.345818 -12.574986 23.985001
-1.345818 -12.53293 23.985001
-1.345818 -12.490873 23.985001
-1.345818 -12.448816 23.985001
-1.3364475 -12.320375 23.818001
-1.3364475 -12.278611 23.818001
-1.3364475 -12.236847 23.818001
-1.2857689 -12.816213 23.654001
-1.2857689 -12.774736 23.654001
-1.2857689 -12.73326 23.654001
-1.2857689 -12.691783 23.654001
-1.2857689 -12.650307 23.654001
-1.2857689 -12.60883 23.654001
-1.2946835 -12.654487 23.818001
-1.2946835 -12.612723 23.818001
-1.3037611 -12.659101 23.985001
-1.3037611 -12.617043 23.985001
-1.2946835 -12.487432 23.818001
-1.2946835 -12.445667 23.818001
-1.2946835 -12.403903 23.818001
-1.2946835 -12.362139 23.818001
-1.2946835 -12.320375 23.818001
-1.2946835 -12.278611 23.818001
-1.2946835 -12.236847 23.818001
-1.2946835 -12.195084 23.818001
-1.235718 -12.727896 23.491001
-1.235718 -12.686706 23.491001
-1.235718 -12.645514 23.491001
-1.2273015 -12.518475 23.331001
-1.2273015 -12.477565 23.331001
-1.2442925 -12.60883 23.654001
-1.2442925 -12.567354 23.654001
-1.2529196 -12.612723 23.818001
-1.2529196 -12.570959 23.818001
-1.2529196 -12.529195 23.818001
-1.2529196 -12.487432 23.818001
-1.2442925 -12.359972 23.654001
-1.2442925 -12.318496 23.654001
-1.2529196 -12.362139 23.818001
-1.2529196 -12.320375 23.818001
-1.2442925 -12.194066 23.654001
-1.2442925 -12.15259 23.654001
-1.2442925 -12.111114 23.654001
-1.1945274 -12.727896 23.491001
-1.1863914 -12.600294 23.331001
-1.1863914 -12.559384 23.331001
-1.178357 -12.433698 23.173
-1.178357 -12.393065 23.173
-1.178357 -12.352432 23.173
-1.178357 -12.311799 23.173
-1.202816 -12.525878 23.654001
-1.202816 -12.484401 23.654001
-1.2111555 -12.529195 23.818001
-1.202816 -12.401448 23.654001
-1.202816 -12.359972 23.654001
-1.202816 -12.318496 23.654001
-1.202816 -12.27702 23.654001
-1.202816 -12.235542 23.654001
-1.1945274 -12.110037 23.491001
-1.1945274 -12.068846 23.491001
-1.1945274 -12.027656 23.491001
-1.1533369 -12.727896 23.491001
-1.1454813 -12.600294 23.331001
-1.1454813 -12.559384 23.331001
-1.137724 -12.433698 23.173
-1.137724 -12.393065 23.173
-1.137724 -12.352432 23.173
-1.137724 -12.311799 23.173
-1.1613396 -12.525878 23.654001
-1.1613396 -12.484401 23.654001
-1.1613396 -12.442924 23.654001
-1.1613396 -12.401448 23.654001
-1.1533369 -12.274799 23.491001
-1.1533369 -12.233608 23.491001
-1.1533369 -12.192418 23.491001
-1.137724 -11.986735 23.173
-1.137724 -11.946102 23.173
-1.137724 -11.905469 23.173
-1.1533369 -12.027656 23.491001
-1.1121463 -12.727896 23.491001
-1.1045712 -12.600294 23.331001
-1.1045712 -12.559384 23.331001
-1.097091 -12.433698 23.173
-1.097091 -12.393065 23.173
-1.1045712 -12.436654 23.331001
-1.1198633 -12.567354 23.654001
-1.1198633 -12.525878 23.654001
-1.1198633 -12.484401 23.654001
-1.1198633 -12.442924 23.654001
-1.1198633 -12.401448 23.654001
-1.1121463 -12.274799 23.491001
-1.1045712 -12.150284 23.331001
-1.097091 -12.027368 23.173
-1.0897055 -11.906041 23.017
-1.0824145 -11.786291 22.863001
-1.0824145 -11.746202 22.863001
-1.0709556 -12.727896 23.491001
-1.0636612 -12.600294 23.331001
-1.0636612 -12.559384 23.331001
-1.0636612 -12.518475 23.331001
-1.0636612 -12.477565 23.331001
-1.0636612 -12.436654 23.331001
-1.0636612 -12.395744 23.331001
-1.0636612 -12.354835 23.331001
-1.0783868 -12.484401 23.654001
-1.0783868 -12.442924 23.654001
-1.0709556 -12.315989 23.491001
-1.0636612 -12.191195 23.331001
-1.056458 -12.068001 23.173
-1.049346 -11.9464 23.017
-1.035441 -11.748273 22.712002
-1.0286025 -11.631121 22.562
-1.0218551 -11.515522 22.414001
-1.0218551 -11.476219 22.414001
-1.015825 -12.555597 23.173
-1.015825 -12.514964 23.173
-1.015825 -12.474331 23.173
-1.015825 -12.433698 23.173
-1.015825 -12.393065 23.173
-1.015825 -12.352432 23.173
-1.015825 -12.311799 23.173
-1.0227512 -12.354835 23.331001
-1.0227512 -12.313924 23.331001
-1.0227512 -12.273014 23.331001
-1.015825 -12.149267 23.173
-1.015825 -12.108634 23.173
-1.0089865 -11.986759 23.017
-0.99561632 -11.788097 22.712002
-0.98255306 -11.594126 22.414001
-0.98255306 -11.554824 22.414001
-0.9761529 -11.440512 22.268002
-0.9761529 -11.401466 22.268002
-0.97519201 -12.555597 23.173
-0.97519201 -12.514964 23.173
-0.97519201 -12.474331 23.173
-0.97519201 -12.433698 23.173
-0.97519201 -12.393065 23.173
-0.97519201 -12.352432 23.173
-0.97519201 -12.311799 23.173
-0.97519201 -12.271166 23.173
-0.97519201 -12.230533 23.173
-0.97519201 -12.1899 23.173
-0.96862704 -12.067478 23.017
-0.96214622 -11.94665 22.863001
-0.95579171 -11.827922 22.712002
-0.94947922 -11.710244 22.562
-0.94325089 -11.594126 22.414001
-0.93710679 -11.479558 22.268002
-0.925071 -11.293575 21.982
-0.91332984 -11.11218 21.703001
-0.91332984 -11.074124 21.703001
-0.9282676 -12.471073 23.017
-0.9282676 -12.430714 23.017
-0.93455899 -12.474331 23.173
-0.93455899 -12.433698 23.173
-0.9282676 -12.309635 23.017
-0.9282676 -12.269276 23.017
-0.9282676 -12.228916 23.017
-0.9282676 -12.188557 23.017
-0.9282676 -12.148197 23.017
-0.92205679 -12.026828 22.863001
-0.91596705 -11.907572 22.712002
-0.91596705 -11.867746 22.712002
-0.90991759 -11.749805 22.562
-0.90991759 -11.710244 22.562
-0.90394878 -11.594126 22.414001
-0.89806068 -11.479558 22.268002
-0.88652641 -11.293575 21.982
-0.87527442 -11.11218 21.703001
-0.87527442 -11.074124 21.703001
-0.87035596 -12.264107 22.562
-0.87035596 -12.224545 22.562
-0.87614238 -12.265993 22.712002
-0.88196737 -12.307454 22.863001
-0.87614238 -12.186344 22.712002
-0.87614238 -12.14652 22.712002
-0.87614238 -12.106695 22.712002
-0.87614238 -12.06687 22.712002
-0.87614238 -12.027045 22.712002
-0.87614238 -11.987221 22.712002
-0.87035596 -11.86849 22.562
-0.87035596 -11.828929 22.562
-0.87035596 -11.789367 22.562
-0.87035596 -11.749805 22.562
-0.86464667 -11.633428 22.414001
-0.85901457 -11.518604 22.268002
-0.85901457 -11.479558 22.268002
-0.8534596 -11.366529 22.124001
-0.84258109 -11.183349 21.842001
-0.84258109 -11.14505 21.842001
-0.83079433 -12.264107 22.562
-0.83079433 -12.224545 22.562
-0.83079433 -12.184983 22.562
-0.83079433 -12.145422 22.562
-0.83079433 -12.10586 22.562
-0.83079433 -12.066298 22.562
-0.83079433 -12.026737 22.562
-0.83079433 -11.987175 22.562
-0.83079433 -11.947614 22.562
-0.83079433 -11.908051 22.562
-0.82534456 -11.790636 22.414001
-0.82534456 -11.751334 22.414001
-0.82534456 -11.712032 22.414001
-0.82534456 -11.67273 22.414001
-0.82534456 -11.633428 22.414001
-0.81996846 -11.518604 22.268002
-0.81996846 -11.479558 22.268002
-0.81466597 -11.366529 22.124001
-0.80428195 -11.183349 21.842001
-0.80428195 -11.14505 21.842001
-0.79123271 -12.264107 22.562
-0.79123271 -12.224545 22.562
-0.79123271 -12.184983 22.562
-0.79123271 -12.145422 22.562
-0.79123271 -12.10586 22.562
-0.79123271 -12.066298 22.562
-0.78604245 -11.947845 22.414001
-0.78604245 -11.908543 22.414001
-0.78604245 -11.869241 22.414001
-0.78604245 -11.829939 22.414001
-0.78604245 -11.790636 22.414001
-0.78092229 -11.674788 22.268002
-0.78092229 -11.635742 22.268002
-0.78092229 -11.596697 22.268002
-0.78604245 -11.633428 22.414001
-0.78092229 -11.518604 22.268002
-0.78092229 -11.479558 22.268002
-0.77587235 -11.366529 22.124001
-0.77587235 -11.327736 22.124001
-0.74674034 -12.183658 22.414001
-0.74187618 -12.065249 22.268002
-0.74187618 -12.026204 22.268002
-0.74674034 -12.065751 22.414001
-0.74674034 -12.026449 22.414001
-0.74674034 -11.987147 22.414001
-0.74674034 -11.947845 22.414001
-0.74187618 -11.830974 22.268002
-0.74187618 -11.791927 22.268002
-0.74187618 -11.752881 22.268002
-0.74187618 -11.713835 22.268002
-0.74187618 -11.674788 22.268002
-0.74187618 -11.635742 22.268002
-0.74187618 -11.596697 22.268002
-0.74187618 -11.557651 22.268002
-0.74187618 -11.518604 22.268002
-0.74187618 -11.479558 22.268002
-0.73707873 -11.366529 22.124001
-0.73234791 -11.255031 21.982
-0.73234791 -11.216486 21.982
-0.70743817 -12.183658 22.414001
-0.6982851 -11.987227 22.124001
-0.6982851 -11.948434 22.124001
-0.70743817 -12.065751 22.414001
-0.6982851 -11.870847 22.124001
-0.69380325 -11.756111 21.982
-0.69380325 -11.717566 21.982
-0.69380325 -11.679022 21.982
-0.6982851 -11.715672 22.124001
-0.6982851 -11.676879 22.124001
-0.6982851 -11.638085 22.124001
-0.6982851 -11.599292 22.124001
-0.6982851 -11.560498 22.124001
-0.70283008 -11.596697 22.268002
-0.70283008 -11.557651 22.268002
-0.70283008 -11.518604 22.268002
-0.70283008 -11.479558 22.268002
-0.6982851 -11.366529 22.124001
-0.69380325 -11.255031 21.982
-0.69380325 -11.216486 21.982
-0.71210939 -10.365149 22.562
-0.71210939 -10.325586 22.562
-0.70743817 -10.218552 22.414001
-0.70743817 -10.17925 22.414001
-0.66378397 -12.104296 22.268002
-0.65525866 -11.91029 21.982
-0.65525866 -11.871745 21.982
-0.66378397 -11.987158 22.268002
-0.65525866 -11.794656 21.982
-0.65525866 -11.756111 21.982
-0.65525866 -11.717566 21.982
-0.65525866 -11.679022 21.982
-0.65525866 -11.640477 21.982
-0.65525866 -11.601933 21.982
-0.65525866 -11.563388 21.982
-0.65525866 -11.524843 21.982
-0.65949148 -11.560498 22.124001
-0.65949148 -11.521705 22.124001
-0.65949148 -11.482911 22.124001
-0.65949148 -11.444118 22.124001
-0.65949148 -11.405324 22.124001
-0.65949148 -11.366529 22.124001
-0.65525866 -11.255031 21.982
-0.65525866 -11.216486 21.982
-0.67254776 -10.365149 22.562
-0.66813606 -10.257854 22.414001
-0.65949148 -10.086341 22.124001
-0.65949148 -10.047547 22.124001
-0.65949148 -10.008753 22.124001
-0.62069786 -12.026021 22.124001
-0.616714 -11.91029 21.982
-0.616714 -11.871745 21.982
-0.616714 -11.8332 21.982
-0.616714 -11.794656 21.982
-0.616714 -11.756111 21.982
-0.61278623 -11.642939 21.842001
-0.61278623 -11.60464 21.842001
-0.60888654 -11.492734 21.703001
-0.60888654 -11.454679 21.703001
-0.61278623 -11.489742 21.842001
-0.61278623 -11.451443 21.842001
-0.616714 -11.486299 21.982
-0.616714 -11.447754 21.982
-0.616714 -11.409209 21.982
-0.616714 -11.370665 21.982
-0.616714 -11.33212 21.982
-0.616714 -11.293575 21.982
-0.61278623 -11.183349 21.842001
-0.61278623 -11.14505 21.842001
-0.62473786 -10.230083 22.268002
-0.62473786 -10.191036 22.268002
-0.62069786 -10.086341 22.124001
-0.616714 -9.983058 21.982
-0.616714 -9.9445133 21.982
-0.57816941 -11.948834 21.982
-0.57448709 -11.834435 21.842001
-0.57448709 -11.796135 21.842001
-0.57448709 -11.757836 21.842001
-0.57448709 -11.719537 21.842001
-0.57448709 -11.681238 21.842001
-0.57083112 -11.568845 21.703001
-0.57083112 -11.530789 21.703001
-0.57083112 -11.492734 21.703001
-0.57083112 -11.454679 21.703001
-0.57448709 -11.489742 21.842001
-0.57448709 -11.451443 21.842001
-0.57448709 -11.413144 21.842001
-0.57816941 -11.447754 21.982
-0.57816941 -11.409209 21.982
-0.57816941 -11.370665 21.982
-0.57816941 -11.33212 21.982
-0.57448709 -11.221648 21.842001
-0.57448709 -11.183349 21.842001
-0.57083112 -11.074124 21.703001
-0.57083112 -11.036069 21.703001
-0.58190423 -10.202722 22.124001
-0.58190423 -10.163928 22.124001
-0.58190423 -10.125134 22.124001
-0.58190423 -10.086341 22.124001
-0.57816941 -9.983058 21.982
-0.57816941 -9.9445133 21.982
-0.58190423 -9.9699593 22.124001
-0.53618795 -11.872734 21.842001
-0.53618795 -11.834435 21.842001
-0.53277576 -11.721066 21.703001
-0.53277576 -11.683011 21.703001
-0.53277576 -11.644956 21.703001
-0.52941257 -11.533631 21.566002
-0.52941257 -11.495816 21.566002
-0.52941257 -11.458001 21.566002
-0.52941257 -11.420186 21.566002
-0.52941257 -11.382371 21.566002
-0.52941257 -11.344556 21.566002
-0.53277576 -11.378568 21.703001
-0.53277576 -11.340512 21.703001
-0.53618795 -11.374845 21.842001
-0.53618795 -11.336546 21.842001
-0.53618795 -11.298246 21.842001
-0.53618795 -11.259948 21.842001
-0.53618795 -11.221648 21.842001
-0.53277576 -11.11218 21.703001
-0.53277576 -11.074124 21.703001
-0.53277576 -11.036069 21.703001
-0.54311067 -10.280309 22.124001
-0.54311067 -10.241515 22.124001
-0.54311067 -10.202722 22.124001
-0.54311067 -10.163928 22.124001
-0.54311067 -10.125134 22.124001
-0.54311067 -10.086341 22.124001
-0.54311067 -10.047547 22.124001
-0.54311067 -10.008753 22.124001
-0.54311067 -9.9699593 22.124001
-0.54311067 -9.9311657 22.124001
-0.54311067 -9.8923721 22.124001
-0.54664564 -9.9177132 22.268002
-0.49472031 -11.797177 21.703001
-0.49472031 -11.759122 21.703001
-0.49159741 -11.647077 21.566002
-0.49159741 -11.609262 21.566002
-0.49159741 -11.571446 21.566002
-0.48852009 -11.461432 21.431002
-0.48852009 -11.423854 21.431002
-0.48852009 -11.386275 21.431002
-0.48852009 -11.348697 21.431002
-0.48852009 -11.311119 21.431002
-0.49159741 -11.344556 21.566002
-0.49159741 -11.306741 21.566002
-0.49159741 -11.268925 21.566002
-0.49159741 -11.23111 21.566002
-0.49159741 -11.193295 21.566002
-0.49472031 -11.226346 21.703001
-0.49472031 -11.188291 21.703001
-0.49472031 -11.150235 21.703001
-0.49159741 -11.042034 21.566002
-0.49159741 -11.004219 21.566002
-0.49159741 -10.966404 21.566002
-0.50108016 -10.252871 21.982
-0.50108016 -10.214326 21.982
-0.50108016 -10.175781 21.982
-0.50431705 -10.202722 22.124001
-0.50108016 -10.098692 21.982
-0.50108016 -10.060147 21.982
-0.50108016 -10.021603 21.982
-0.50108016 -9.983058 21.982
-0.50108016 -9.9445133 21.982
-0.50108016 -9.9059687 21.982
-0.50108016 -9.867424 21.982
-0.50431705 -9.8923721 22.124001
-0.50431705 -9.8535786 22.124001
-0.50431705 -9.814785 22.124001
-0.50431705 -9.7759914 22.124001
-0.45378223 -11.722708 21.566002
-0.45378223 -11.684892 21.566002
-0.45378223 -11.647077 21.566002
-0.45094162 -11.53659 21.431002
-0.45094162 -11.499011 21.431002
-0.45094162 -11.461432 21.431002
-0.45094162 -11.423854 21.431002
-0.45094162 -11.386275 21.431002
-0.45094162 -11.348697 21.431002
-0.45094162 -11.311119 21.431002
-0.45378223 -11.344556 21.566002
-0.45378223 -11.306741 21.566002
-0.45378223 -11.268925 21.566002
-0.45378223 -11.23111 21.566002
-0.45378223 -11.193295 21.566002
-0.45094162 -11.085648 21.431002
-0.45094162 -11.048069 21.431002
-0.45094162 -11.010491 21.431002
-0.45094162 -10.972913 21.431002
-0.45094162 -10.935334 21.431002
-0.45094162 -10.897756 21.431002
-0.4625355 -10.252871 21.982
-0.4625355 -10.214326 21.982
-0.4625355 -10.175781 21.982
-0.4625355 -10.137237 21.982
-0.4625355 -10.098692 21.982
-0.4625355 -10.060147 21.982
-0.4625355 -10.021603 21.982
-0.4625355 -9.983058 21.982
-0.4625355 -9.9445133 21.982
-0.4625355 -9.9059687 21.982
-0.4625355 -9.867424 21.982
-0.4625355 -9.8288794 21.982
-0.46552342 -9.8535786 22.124001
-0.46552342 -9.814785 22.124001
-0.46552342 -9.7759914 22.124001
-0.46552342 -9.7371979 22.124001
-0.41596705 -11.722708 21.566002
-0.41336313 -11.611747 21.431002
-0.41336313 -11.574168 21.431002
-0.41336313 -11.53659 21.431002
-0.41336313 -11.499011 21.431002
-0.41336313 -11.461432 21.431002
-0.41336313 -11.423854 21.431002
-0.41336313 -11.386275 21.431002
-0.41336313 -11.348697 21.431002
-0.41336313 -11.311119 21.431002
-0.41336313 -11.27354 21.431002
-0.41336313 -11.235962 21.431002
-0.41336313 -11.198383 21.431002
-0.41336313 -11.160805 21.431002
-0.41336313 -11.123226 21.431002
-0.41336313 -11.085648 21.431002
-0.41336313 -11.048069 21.431002
-0.41336313 -11.010491 21.431002
-0.41336313 -10.972913 21.431002
-0.41336313 -10.935334 21.431002
-0.41336313 -10.897756 21.431002
-0.41596705 -10.928589 21.566002
-0.41596705 -10.890773 21.566002
-0.42129055 -10.187572 21.842001
-0.42129055 -10.149272 21.842001
-0.42129055 -10.110973 21.842001
-0.42399088 -10.137237 21.982
-0.42129055 -10.034375 21.842001
-0.42129055 -9.9960756 21.842001
-0.42129055 -9.957777 21.842001
-0.42129055 -9.9194775 21.842001
-0.42129055 -9.8811779 21.842001
-0.42129055 -9.8428793 21.842001
-0.42129055 -9.8045797 21.842001
-0.42129055 -9.7662811 21.842001
-0.42399088 -9.7903347 21.982
-0.42399088 -9.75179 21.982
-0.42399088 -9.7132454 21.982
-0.42399088 -9.6747007 21.982
-0.42399088 -9.6361561 21.982
-0.37578467 -11.649325 21.431002
-0.37578467 -11.611747 21.431002
-0.37578467 -11.574168 21.431002
-0.37578467 -11.53659 21.431002
-0.37345257 -11.427649 21.298
-0.37345257 -11.390304 21.298
-0.37345257 -11.352958 21.298
-0.37345257 -11.315613 21.298
-0.37345257 -11.278268 21.298
-0.37345257 -11.240922 21.298
-0.37578467 -11.27354 21.431002
-0.37578467 -11.235962 21.431002
-0.37578467 -11.198383 21.431002
-0.37345257 -11.091541 21.298
-0.37345257 -11.054196 21.298
-0.37345257 -11.01685 21.298
-0.37345257 -10.979506 21.298
-0.37345257 -10.942161 21.298
-0.37345257 -10.904815 21.298
-0.37345257 -10.86747 21.298
-0.37345257 -10.830125 21.298
-0.37815186 -10.928589 21.566002
-0.37815186 -10.890773 21.566002
-0.3829914 -10.187572 21.842001
-0.3829914 -10.149272 21.842001
-0.3829914 -10.110973 21.842001
-0.3829914 -10.072674 21.842001
-0.38055408 -9.9705172 21.703001
-0.38055408 -9.9324617 21.703001
-0.38055408 -9.8944063 21.703001
-0.38055408 -9.8563509 21.703001
-0.3829914 -9.8811779 21.842001
-0.38055408 -9.7802401 21.703001
-0.38055408 -9.7421846 21.703001
-0.38055408 -9.7041292 21.703001
-0.3829914 -9.7279816 21.842001
-0.3829914 -9.689683 21.842001
-0.3829914 -9.6513834 21.842001
-0.3829914 -9.6130848 21.842001
-0.38055408 -9.5138521 21.703001
-0.38055408 -9.4757967 21.703001
-0.3829914 -9.4981871 21.842001
-0.3829914 -9.4598875 21.842001
-0.3382062 -11.649325 21.431002
-0.3382062 -11.611747 21.431002
-0.3382062 -11.574168 21.431002
-0.33610731 -11.464993 21.298
-0.33610731 -11.427649 21.298
-0.33610731 -11.390304 21.298
-0.33610731 -11.352958 21.298
-0.33610731 -11.315613 21.298
-0.33610731 -11.278268 21.298
-0.33610731 -11.240922 21.298
-0.33610731 -11.203577 21.298
-0.33610731 -11.166232 21.298
-0.33610731 -11.128886 21.298
-0.33610731 -11.091541 21.298
-0.33610731 -11.054196 21.298
-0.33610731 -11.01685 21.298
-0.33610731 -10.979506 21.298
-0.33610731 -10.942161 21.298
-0.33402419 -10.83723 21.166
-0.33402419 -10.800116 21.166
-0.33402419 -10.763002 21.166
-0.33610731 -10.792779 21.298
-0.33610731 -10.755434 21.298
-0.35605469 -11.354189 22.562
-0.35605469 -11.314628 22.562
-0.35371909 -11.201105 22.414001
-0.34033665 -10.096654 21.566002
-0.34249869 -10.122739 21.703001
-0.34249869 -10.084683 21.703001
-0.34249869 -10.046628 21.703001
-0.34249869 -10.008573 21.703001
-0.34249869 -9.9705172 21.703001
-0.34249869 -9.9324617 21.703001
-0.34249869 -9.8944063 21.703001
-0.34249869 -9.8563509 21.703001
-0.34249869 -9.8182955 21.703001
-0.34249869 -9.7802401 21.703001
-0.34033665 -9.680687 21.566002
-0.34033665 -9.6428719 21.566002
-0.34033665 -9.6050568 21.566002
-0.34249869 -9.6280184 21.703001
-0.34033665 -9.5294266 21.566002
-0.34033665 -9.4916115 21.566002
-0.34033665 -9.4537964 21.566002
-0.34033665 -9.4159813 21.566002
-0.34033665 -9.3781662 21.566002
-0.34033665 -9.3403511 21.566002
-0.30062774 -11.649325 21.431002
-0.30062774 -11.611747 21.431002
-0.30062774 -11.574168 21.431002
-0.29876205 -11.464993 21.298
-0.29876205 -11.427649 21.298
-0.29876205 -11.390304 21.298
-0.29876205 -11.352958 21.298
-0.29876205 -11.315613 21.298
-0.29876205 -11.278268 21.298
-0.29876205 -11.240922 21.298
-0.29876205 -11.203577 21.298
-0.29876205 -11.166232 21.298
-0.29876205 -11.128886 21.298
-0.29876205 -11.091541 21.298
-0.29691041 -10.985684 21.166
-0.29691041 -10.948571 21.166
-0.29691041 -10.911457 21.166
-0.29691041 -10.874343 21.166
-0.29691041 -10.83723 21.166
-0.29691041 -10.800116 21.166
-0.29691041 -10.763002 21.166
-0.29876205 -10.792779 21.298
-0.29876205 -10.755434 21.298
-0.31441697 -11.279709 22.414001
-0.31441697 -11.240407 22.414001
-0.31441697 -11.201105 22.414001
-0.30252147 -10.096654 21.566002
-0.30252147 -10.058839 21.566002
-0.30252147 -10.021024 21.566002
-0.30252147 -9.9832087 21.566002
-0.30252147 -9.9453936 21.566002
-0.30062774 -9.8455582 21.431002
-0.30062774 -9.8079796 21.431002
-0.30062774 -9.770402 21.431002
-0.30062774 -9.7328234 21.431002
-0.30062774 -9.6952448 21.431002
-0.30062774 -9.6576662 21.431002
-0.30062774 -9.6200876 21.431002
-0.30062774 -9.582509 21.431002
-0.30062774 -9.5449305 21.431002
-0.30062774 -9.5073519 21.431002
-0.30062774 -9.4697742 21.431002
-0.30062774 -9.4321957 21.431002
-0.30062774 -9.3946171 21.431002
-0.30062774 -9.3570385 21.431002
-0.30062774 -9.3194599 21.431002
-0.29876205 -9.2242785 21.298
-0.29876205 -9.1869335 21.298
-0.26304927 -11.649325 21.431002
-0.26141679 -11.539684 21.298
-0.26141679 -11.502339 21.298
-0.26141679 -11.464993 21.298
-0.26141679 -11.427649 21.298
-0.25979659 -11.319709 21.166
-0.25979659 -11.282595 21.166
-0.25979659 -11.245481 21.166
-0.26141679 -11.278268 21.298
-0.26141679 -11.240922 21.298
-0.26141679 -11.203577 21.298
-0.26141679 -11.166232 21.298
-0.25979659 -11.059913 21.166
-0.25979659 -11.022799 21.166
-0.25979659 -10.985684 21.166
-0.25820094 -10.881326 21.036001
-0.25820094 -10.84444 21.036001
-0.25820094 -10.807554 21.036001
-0.25820094 -10.770668 21.036001
-0.25820094 -10.733782 21.036001
-0.26304927 -10.033451 21.431002
-0.26304927 -9.9958725 21.431002
-0.26304927 -9.9582939 21.431002
-0.26304927 -9.9207153 21.431002
-0.26304927 -9.8831367 21.431002
-0.26304927 -9.8455582 21.431002
-0.26304927 -9.8079796 21.431002
-0.26141679 -9.7097664 21.298
-0.26141679 -9.6724215 21.298
-0.26304927 -9.6952448 21.431002
-0.26304927 -9.6576662 21.431002
-0.26304927 -9.6200876 21.431002
-0.26304927 -9.582509 21.431002
-0.26304927 -9.5449305 21.431002
-0.26304927 -9.5073519 21.431002
-0.26304927 -9.4697742 21.431002
-0.26141679 -9.3736591 21.298
-0.26141679 -9.3363142 21.298
-0.26141679 -9.2989693 21.298
-0.26141679 -9.2616234 21.298
-0.25979659 -9.1671085 21.166
-0.25979659 -9.1299944 21.166
-0.22407155 -11.577029 21.298
-0.22407155 -11.539684 21.298
-0.22407155 -11.502339 21.298
-0.2226828 -11.393936 21.166
-0.21996844 -11.21839 20.908001
-0.21996844 -11.181729 20.908001
-0.21996844 -11.145067 20.908001
-0.21996844 -11.108406 20.908001
-0.21996844 -11.071745 20.908001
-0.21996844 -11.035083 20.908001
-0.21996844 -10.998422 20.908001
-0.21996844 -10.961761 20.908001
-0.21996844 -10.925099 20.908001
-0.21996844 -10.888437 20.908001
-0.21996844 -10.851776 20.908001
-0.21996844 -10.815115 20.908001
-0.21996844 -10.778454 20.908001
-0.21996844 -10.741792 20.908001
-0.21996844 -10.705131 20.908001
-0.21996844 -10.668469 20.908001
-0.22547081 -10.033451 21.431002
-0.22547081 -9.9958725 21.431002
-0.22407155 -9.896493 21.298
-0.22407155 -9.859148 21.298
-0.22407155 -9.8218021 21.298
-0.22407155 -9.7844572 21.298
-0.22407155 -9.7471123 21.298
-0.22407155 -9.7097664 21.298
-0.22407155 -9.6724215 21.298
-0.22407155 -9.6350765 21.298
-0.22407155 -9.5977306 21.298
-0.22547081 -9.6200876 21.431002
-0.22547081 -9.582509 21.431002
-0.22407155 -9.4856949 21.298
-0.22407155 -9.44835 21.298
-0.22407155 -9.411005 21.298
-0.2226828 -9.3155642 21.166
-0.2226828 -9.27845 21.166
-0.2226828 -9.2413359 21.166
-0.2226828 -9.2042227 21.166
-0.2213151 -9.1108046 21.036001
-0.2213151 -9.0739193 21.036001
-0.2213151 -9.0370331 21.036001
-0.18330704 -11.365036 20.908001
-0.18219358 -11.259563 20.781
-0.18219358 -11.223125 20.781
-0.18219358 -11.186686 20.781
-0.18219358 -11.150248 20.781
-0.18219358 -11.113809 20.781
-0.18219358 -11.07737 20.781
-0.18219358 -11.040931 20.781
-0.18219358 -11.004493 20.781
-0.18219358 -10.968054 20.781
-0.18219358 -10.931615 20.781
-0.18219358 -10.895176 20.781
-0.18219358 -10.858738 20.781
-0.18219358 -10.822299 20.781
-0.18330704 -10.851776 20.908001
-0.18330704 -10.815115 20.908001
-0.18330704 -10.778454 20.908001
-0.18330704 -10.741792 20.908001
-0.18330704 -10.705131 20.908001
-0.18330704 -10.668469 20.908001
-0.18442924 -10.696897 21.036001
-0.18442924 -10.66001 21.036001
-0.18442924 -10.623125 21.036001
-0.18442924 -10.586239 21.036001
-0.18442924 -10.549353 21.036001
-0.18907593 -10.777328 21.566002
-0.18907593 -10.739512 21.566002
-0.19272313 -10.908129 21.982
-0.19272313 -10.869584 21.982
-0.19272313 -10.831039 21.982
-0.19272313 -10.792495 21.982
-0.185569 -9.9093847 21.166
-0.185569 -9.8722706 21.166
-0.185569 -9.8351574 21.166
-0.185569 -9.7980433 21.166
-0.185569 -9.7609291 21.166
-0.185569 -9.7238159 21.166
-0.185569 -9.6867018 21.166
-0.185569 -9.6495876 21.166
-0.185569 -9.6124744 21.166
-0.185569 -9.5753603 21.166
-0.18672629 -9.5977306 21.298
-0.18672629 -9.5603857 21.298
-0.18672629 -9.5230408 21.298
-0.18672629 -9.4856949 21.298
-0.18672629 -9.44835 21.298
-0.185569 -9.3526773 21.166
-0.185569 -9.3155642 21.166
-0.18442924 -9.2214622 21.036001
-0.18442924 -9.184577 21.036001
-0.18442924 -9.1476908 21.036001
-0.18442924 -9.1108046 21.036001
-0.18330704 -9.0187063 20.908001
-0.18330704 -8.9820442 20.908001
-0.14575486 -11.296002 20.781
-0.14575486 -11.259563 20.781
-0.14575486 -11.223125 20.781
-0.14575486 -11.186686 20.781
-0.14575486 -11.150248 20.781
-0.14575486 -11.113809 20.781
-0.14575486 -11.07737 20.781
-0.14575486 -11.040931 20.781
-0.14575486 -11.004493 20.781
-0.14575486 -10.968054 20.781
-0.14575486 -10.931615 20.781
-0.14575486 -10.895176 20.781
-0.14575486 -10.858738 20.781
-0.14575486 -10.822299 20.781
-0.14575486 -10.78586 20.781
-0.14575486 -10.749421 20.781
-0.14575486 -10.712982 20.781
-0.14575486 -10.676544 20.781
-0.14575486 -10.640105 20.781
-0.14664562 -10.668469 20.908001
-0.14664562 -10.631808 20.908001
-0.14664562 -10.595146 20.908001
-0.14664562 -10.558485 20.908001
-0.14664562 -10.521824 20.908001
-0.14664562 -10.485162 20.908001
-0.14664562 -10.448501 20.908001
-0.15031387 -10.672285 21.431002
-0.15031387 -10.634706 21.431002
-0.15031387 -10.597128 21.431002
-0.1484552 -9.9093847 21.166
-0.1484552 -9.8722706 21.166
-0.1484552 -9.8351574 21.166
-0.1475434 -9.7378645 21.036001
-0.1475434 -9.7009783 21.036001
-0.1475434 -9.664093 21.036001
-0.1484552 -9.6867018 21.166
-0.1484552 -9.6495876 21.166
-0.1484552 -9.6124744 21.166
-0.1484552 -9.5753603 21.166
-0.14938103 -9.5977306 21.298
-0.14938103 -9.5603857 21.298
-0.14938103 -9.5230408 21.298
-0.14938103 -9.4856949 21.298
-0.14938103 -9.44835 21.298
-0.1475434 -9.2952337 21.036001
-0.1475434 -9.2583485 21.036001
-0.1475434 -9.2214622 21.036001
-0.1475434 -9.184577 21.036001
-0.1475434 -9.1476908 21.036001
-0.1475434 -9.1108046 21.036001
-0.14664562 -9.0187063 20.908001
-0.14664562 -8.9820442 20.908001
-0.14664562 -8.9453831 20.908001
-0.14664562 -8.9087219 20.908001
-0.14664562 -8.8720608 20.908001
-0.10865334 -11.227511 20.655001
-0.10865334 -11.191294 20.655001
-0.10865334 -11.155076 20.655001
-0.10865334 -11.118858 20.655001
-0.10865334 -11.082641 20.655001
-0.10931615 -11.113809 20.781
-0.10800105 -10.944107 20.531
-0.10800105 -10.908106 20.531
-0.10865334 -10.93777 20.655001
-0.10865334 -10.901552 20.655001
-0.10865334 -10.865335 20.655001
-0.10865334 -10.829116 20.655001
-0.10865334 -10.792898 20.655001
-0.10865334 -10.75668 20.655001
-0.10931615 -10.78586 20.781
-0.10931615 -10.749421 20.781
-0.10931615 -10.712982 20.781
-0.10931615 -10.676544 20.781
-0.10931615 -10.640105 20.781
-0.10931615 -10.603666 20.781
-0.10931615 -10.567227 20.781
-0.10998422 -10.595146 20.908001
-0.10998422 -10.558485 20.908001
-0.10998422 -10.521824 20.908001
-0.10998422 -10.485162 20.908001
-0.10998422 -10.448501 20.908001
-0.11203577 -10.606053 21.298
-0.11203577 -10.568707 21.298
-0.11563388 -10.869584 21.982
-0.10998422 -9.8252573 20.908001
-0.11065755 -9.8485222 21.036001
-0.11065755 -9.811636 21.036001
-0.11065755 -9.7747498 21.036001
-0.11065755 -9.7378645 21.036001
-0.11065755 -9.7009783 21.036001
-0.11065755 -9.664093 21.036001
-0.11065755 -9.6272068 21.036001
-0.11065755 -9.5903206 21.036001
-0.1113414 -9.6124744 21.166
-0.1113414 -9.5753603 21.166
-0.1113414 -9.5382462 21.166
-0.11203577 -9.5603857 21.298
-0.11203577 -9.5230408 21.298
-0.11203577 -9.4856949 21.298
-0.11203577 -9.44835 21.298
-0.11065755 -9.2952337 21.036001
-0.11065755 -9.2583485 21.036001
-0.11065755 -9.2214622 21.036001
-0.11065755 -9.184577 21.036001
-0.11065755 -9.1476908 21.036001
-0.10998422 -9.0553675 20.908001
-0.10998422 -9.0187063 20.908001
-0.10998422 -8.9820442 20.908001
-0.10998422 -8.9453831 20.908001
-0.10998422 -8.9087219 20.908001
-0.10931615 -8.8181696 20.781
-0.10865334 -8.7284851 20.655001
-0.10865334 -8.6922674 20.655001
-0.072435558 -11.227511 20.655001
-0.072435558 -11.191294 20.655001
-0.072435558 -11.155076 20.655001
-0.072435558 -11.118858 20.655001
-0.072435558 -11.082641 20.655001
-0.072435558 -11.046423 20.655001
-0.072000705 -10.944107 20.531
-0.072000705 -10.908106 20.531
-0.072000705 -10.872106 20.531
-0.072000705 -10.836105 20.531
-0.072000705 -10.800105 20.531
-0.072000705 -10.764105 20.531
-0.072000705 -10.728105 20.531
-0.072435558 -10.75668 20.655001
-0.072435558 -10.720463 20.655001
-0.072435558 -10.684245 20.655001
-0.072435558 -10.648027 20.655001
-0.072877429 -10.676544 20.781
-0.072877429 -10.640105 20.781
-0.072877429 -10.603666 20.781
-0.072877429 -10.567227 20.781
-0.072877429 -10.530789 20.781
-0.07332281 -10.558485 20.908001
-0.07332281 -10.521824 20.908001
-0.07332281 -10.485162 20.908001
-0.07332281 -10.448501 20.908001
-0.074690513 -10.606053 21.298
-0.07708925 -10.908129 21.982
-0.07708925 -10.869584 21.982
-0.07332281 -9.8252573 20.908001
-0.07332281 -9.7885952 20.908001
-0.07332281 -9.7519341 20.908001
-0.0737717 -9.7747498 21.036001
-0.0737717 -9.7378645 21.036001
-0.0737717 -9.7009783 21.036001
-0.0737717 -9.664093 21.036001
-0.0737717 -9.6272068 21.036001
-0.0737717 -9.5903206 21.036001
-0.0737717 -9.5534353 21.036001
-0.0737717 -9.5165491 21.036001
-0.0737717 -9.4796629 21.036001
-0.074227601 -9.501133 21.166
-0.0737717 -9.4058914 21.036001
-0.0737717 -9.3690062 21.036001
-0.0737717 -9.3321199 21.036001
-0.0737717 -9.2952337 21.036001
-0.0737717 -9.2583485 21.036001
-0.0737717 -9.2214622 21.036001
-0.0737717 -9.184577 21.036001
-0.07332281 -9.0920286 20.908001
-0.07332281 -9.0553675 20.908001
-0.07332281 -9.0187063 20.908001
-0.07332281 -8.9820442 20.908001
-0.07332281 -8.9453831 20.908001
-0.07332281 -8.9087219 20.908001
-0.072877429 -8.8181696 20.781
-0.072435558 -8.7284851 20.655001
-0.072435558 -8.6922674 20.655001
-0.072877429 -8.7088528 20.781
-0.072877429 -8.6724148 20.781
-0.072877429 -8.6359758 20.781
-0.072877429 -8.5995369 20.781
-0.072877429 -8.563098 20.781
-0.036000352 -11.160109 20.531
-0.036000352 -11.124108 20.531
-0.036000352 -11.088108 20.531
-0.036000352 -11.052108 20.531
-0.036000352 -11.016108 20.531
-0.036000352 -10.980107 20.531
-0.035786428 -10.879074 20.409
-0.035786428 -10.843287 20.409
-0.035786428 -10.807501 20.409
-0.035786428 -10.771715 20.409
-0.035786428 -10.735929 20.409
-0.036000352 -10.764105 20.531
-0.036000352 -10.728105 20.531
-0.036000352 -10.692104 20.531
-0.036217779 -10.720463 20.655001
-0.036217779 -10.684245 20.655001
-0.036217779 -10.648027 20.655001
-0.036438715 -10.676544 20.781
-0.036438715 -10.640105 20.781
-0.036217779 -10.539374 20.655001
-0.036217779 -10.503157 20.655001
-0.036438715 -10.530789 20.781
-0.036438715 -10.49435 20.781
-0.036661405 -10.521824 20.908001
-0.036661405 -10.485162 20.908001
-0.036661405 -10.448501 20.908001
-0.038055409 -10.807736 21.703001
-0.038544625 -10.908129 21.982
-0.038544625 -10.869584 21.982
-0.036661405 -9.7885952 20.908001
-0.036661405 -9.7519341 20.908001
-0.03688585 -9.7747498 21.036001
-0.03688585 -9.7378645 21.036001
-0.03688585 -9.7009783 21.036001
-0.03688585 -9.664093 21.036001
-0.03688585 -9.6272068 21.036001
-0.03688585 -9.5903206 21.036001
-0.03688585 -9.5534353 21.036001
-0.03688585 -9.5165491 21.036001
-0.03688585 -9.4796629 21.036001
-0.03688585 -9.4427776 21.036001
-0.03688585 -9.4058914 21.036001
-0.03688585 -9.3690062 21.036001
-0.03688585 -9.3321199 21.036001
-0.03688585 -9.2952337 21.036001
-0.03688585 -9.2583485 21.036001
-0.03688585 -9.2214622 21.036001
-0.03688585 -9.184577 21.036001
-0.036661405 -9.0920286 20.908001
-0.036661405 -9.0553675 20.908001
-0.036661405 -9.0187063 20.908001
-0.036661405 -8.9820442 20.908001
-0.036661405 -8.9453831 20.908001
-0.036661405 -8.9087219 20.908001
-0.036438715 -8.8181696 20.781
-0.036217779 -8.7284851 20.655001
-0.036217779 -8.6922674 20.655001
-0.036438715 -8.7088528 20.781
-0.036438715 -8.6724148 20.781
-0.036438715 -8.6359758 20.781
-0.036438715 -8.5995369 20.781
-0.036438715 -8.563098 20.781
-0.03688585 -8.6312885 21.036001
0 -11.093793 20.409
0 -11.058006 20.409
0 -11.02222 20.409
0 -10.986433 20.409
0 -10.950647 20.409
0 -10.914861 20.409
0 -10.879074 20.409
0 -10.843287 20.409
0 -10.807501 20.409
0 -10.771715 20.409
0 -10.735929 20.409
0 -10.700142 20.409
0 -10.664355 20.409
0 -10.692104 20.531
0 -10.656104 20.531
0 -10.620104 20.531
0 -10.584103 20.531
0 -10.548102 20.531
0 -10.512102 20.531
0 -10.476102 20.531
0 -10.440102 20.531
0 -10.404101 20.531
0 -10.43072 20.655001
0 -10.457911 20.781
0 -10.421473 20.781
0 -10.709864 21.431002
0 -10.672285 21.431002
0 -10.634706 21.431002
0 -9.8485222 21.036001
0 -9.811636 21.036001
0 -9.7747498 21.036001
0 -9.7378645 21.036001
0 -9.7009783 21.036001
0 -9.664093 21.036001
0 -9.6272068 21.036001
0 -9.5903206 21.036001
0 -9.4953041 20.908001
0 -9.458643 20.908001
0 -9.4796629 21.036001
0 -9.4427776 21.036001
0 -9.3486586 20.908001
0 -9.3119974 20.908001
0 -9.3321199 21.036001
0 -9.2952337 21.036001
0 -9.202013 20.908001
0 -9.1653519 20.908001
0 -9.1286898 20.908001
0 -9.0920286 20.908001
0 -9.0553675 20.908001
0 -9.0187063 20.908001
0 -8.9820442 20.908001
0 -8.9453831 20.908001
0 -8.8546085 20.781
0 -8.8181696 20.781
0 -8.7817307 20.781
0 -8.7452917 20.781
0 -8.7088528 20.781
0 -8.6724148 20.781
0 -8.6359758 20.781
0 -8.5995369 20.781
0 -8.563098 20.781
0 -8.5787687 20.908001
0.035786428 -11.093793 20.409
0.035786428 -11.058006 20.409
0.035786428 -11.02222 20.409
0.035786428 -10.986433 20.409
0.035786428 -10.950647 20.409
0.035786428 -10.914861 20.409
0.035574257 -10.814575 20.288
0.035574257 -10.779 20.288
0.035574257 -10.743426 20.288
0.035574257 -10.707852 20.288
0.035574257 -10.672277 20.288
0.035574257 -10.636703 20.288
0.035574257 -10.60113 20.288
0.035786428 -10.62857 20.409
0.035786428 -10.592783 20.409
0.035786428 -10.556996 20.409
0.035786428 -10.52121 20.409
0.035786428 -10.485423 20.409
0.035786428 -10.449637 20.409
0.036000352 -10.476102 20.531
0.036000352 -10.440102 20.531
0.036000352 -10.404101 20.531
0.036000352 -10.368101 20.531
0.036217779 -10.394503 20.655001
0.036217779 -10.358285 20.655001
0.037578467 -10.709864 21.431002
0.037578467 -10.672285 21.431002
0.03688585 -9.811636 21.036001
0.03688585 -9.7747498 21.036001
0.03688585 -9.7378645 21.036001
0.03688585 -9.7009783 21.036001
0.036661405 -9.6052885 20.908001
0.036661405 -9.5686274 20.908001
0.036661405 -9.5319653 20.908001
0.036000352 -9.324091 20.531
0.036000352 -9.2880907 20.531
0.036661405 -9.4219818 20.908001
0.036438715 -9.328311 20.781
0.036438715 -9.291873 20.781
0.036438715 -9.255434 20.781
0.036661405 -9.2753353 20.908001
0.036661405 -9.2386742 20.908001
0.036661405 -9.202013 20.908001
0.036661405 -9.1653519 20.908001
0.036661405 -9.1286898 20.908001
0.036438715 -9.0368013 20.781
0.036438715 -9.0003633 20.781
0.036438715 -8.9639244 20.781
0.036438715 -8.9274855 20.781
0.036438715 -8.8910465 20.781
0.036438715 -8.8546085 20.781
0.036438715 -8.8181696 20.781
0.036438715 -8.7817307 20.781
0.036438715 -8.7452917 20.781
0.036438715 -8.7088528 20.781
0.036438715 -8.6724148 20.781
0.036438715 -8.6359758 20.781
0.036438715 -8.5995369 20.781
0.036438715 -8.563098 20.781
0.036661405 -8.5787687 20.908001
0.071572855 -11.093793 20.409
0.071572855 -11.058006 20.409
0.071148515 -10.956872 20.288
0.071148515 -10.921298 20.288
0.071148515 -10.885723 20.288
0.071148515 -10.850149 20.288
0.071148515 -10.814575 20.288
0.071148515 -10.779 20.288
0.070727684 -10.679881 20.168001
0.070727684 -10.644517 20.168001
0.070727684 -10.609153 20.168001
0.070727684 -10.57379 20.168001
0.070727684 -10.538425 20.168001
0.071148515 -10.565555 20.288
0.071148515 -10.529981 20.288
0.071148515 -10.494407 20.288
0.071148515 -10.458832 20.288
0.071572855 -10.485423 20.409
0.071572855 -10.449637 20.409
0.071572855 -10.413851 20.409
0.071572855 -10.378064 20.409
0.071572855 -10.342278 20.409
0.072000705 -10.368101 20.531
0.072000705 -10.332101 20.531
0.072000705 -10.296101 20.531
0.072000705 -10.224099 20.531
0.072000705 -9.5760937 20.531
0.072000705 -9.5400925 20.531
0.072000705 -9.5040922 20.531
0.07332281 -9.6419497 20.908001
0.072000705 -9.4320917 20.531
0.072000705 -9.3960915 20.531
0.072000705 -9.3600912 20.531
0.072000705 -9.324091 20.531
0.072000705 -9.2880907 20.531
0.072435558 -9.3079691 20.655001
0.072435558 -9.2717514 20.655001
0.072435558 -9.2355337 20.655001
0.072435558 -9.199316 20.655001
0.072435558 -9.1630983 20.655001
0.072435558 -9.1268806 20.655001
0.072435558 -9.090663 20.655001
0.072435558 -9.0544453 20.655001
0.072435558 -9.0182276 20.655001
0.072877429 -9.0368013 20.781
0.072877429 -9.0003633 20.781
0.072877429 -8.9639244 20.781
0.072877429 -8.9274855 20.781
0.072877429 -8.8910465 20.781
0.072877429 -8.8546085 20.781
0.072877429 -8.8181696 20.781
0.072435558 -8.7284851 20.655001
0.072435558 -8.6922674 20.655001
0.072877429 -8.7088528 20.781
0.072877429 -8.6724148 20.781
0.072877429 -8.6359758 20.781
0.072877429 -8.5995369 20.781
0.07332281 -8.6154308 20.908001
0.07332281 -8.5787687 20.908001
0.072877429 -8.490221 20.781
0.072877429 -8.4537821 20.781
0.072877429 -8.4173431 20.781
0.10672278 -11.02802 20.288
0.10672278 -10.992446 20.288
0.10672278 -10.956872 20.288
0.10672278 -10.921298 20.288
0.10609153 -10.821336 20.168001
0.10609153 -10.785973 20.168001
0.10609153 -10.750608 20.168001
0.10609153 -10.715244 20.168001
0.10547081 -10.617394 20.050001
0.10547081 -10.582237 20.050001
0.10609153 -10.609153 20.168001
0.10609153 -10.57379 20.168001
0.10609153 -10.538425 20.168001
0.10672278 -10.565555 20.288
0.10672278 -10.529981 20.288
0.10672278 -10.494407 20.288
0.10672278 -10.458832 20.288
0.10672278 -10.423258 20.288
0.10672278 -10.387684 20.288
0.10672278 -10.352109 20.288
0.10672278 -10.316535 20.288
0.10672278 -10.280961 20.288
0.10672278 -10.245387 20.288
0.10735928 -10.270705 20.409
0.10800105 -10.296101 20.531
0.10800105 -9.5400925 20.531
0.10800105 -9.5040922 20.531
0.10800105 -9.468092 20.531
0.10735928 -9.3760443 20.409
0.10735928 -9.3402576 20.409
0.10800105 -9.3600912 20.531
0.10735928 -9.2686853 20.409
0.10735928 -9.2328987 20.409
0.10800105 -9.2520905 20.531
0.10800105 -9.2160902 20.531
0.10800105 -9.180089 20.531
0.10800105 -9.1440887 20.531
0.10800105 -9.1080885 20.531
0.10800105 -9.0720882 20.531
0.10800105 -9.036088 20.531
0.10800105 -9.0000877 20.531
0.10800105 -8.9640875 20.531
0.10800105 -8.9280872 20.531
0.10800105 -8.892087 20.531
0.10865334 -8.9095736 20.655001
0.10865334 -8.8733559 20.655001
0.10865334 -8.8371382 20.655001
0.10865334 -8.8009205 20.655001
0.10865334 -8.7647028 20.655001
0.10865334 -8.7284851 20.655001
0.10865334 -8.6922674 20.655001
0.10865334 -8.6560497 20.655001
0.10865334 -8.619832 20.655001
0.10865334 -8.5836143 20.655001
0.10865334 -8.5473957 20.655001
0.10865334 -8.511178 20.655001
0.10865334 -8.4749603 20.655001
0.10931615 -8.490221 20.781
0.10865334 -8.4025249 20.655001
0.10865334 -8.3663073 20.655001
0.14145537 -10.962791 20.168001
0.14145537 -10.927427 20.168001
0.14145537 -10.892064 20.168001
0.14145537 -10.8567 20.168001
0.14145537 -10.821336 20.168001
0.14062774 -10.722865 20.050001
0.14145537 -10.609153 20.168001
0.14062774 -10.511924 20.050001
0.14062774 -10.476767 20.050001
0.14145537 -10.503061 20.168001
0.14145537 -10.467698 20.168001
0.14145537 -10.432334 20.168001
0.14145537 -10.39697 20.168001
0.14145537 -10.361607 20.168001
0.14145537 -10.326242 20.168001
0.14145537 -10.290878 20.168001
0.14145537 -10.255515 20.168001
0.14145537 -10.220151 20.168001
0.14145537 -10.184787 20.168001
0.14062774 -10.09004 20.050001
0.14062774 -10.054883 20.050001
0.14400141 -9.5400925 20.531
0.14400141 -9.5040922 20.531
0.14400141 -9.468092 20.531
0.14314571 -9.3760443 20.409
0.14314571 -9.3402576 20.409
0.14400141 -9.3600912 20.531
0.14314571 -9.2686853 20.409
0.14314571 -9.2328987 20.409
0.14400141 -9.2520905 20.531
0.14400141 -9.2160902 20.531
0.14400141 -9.180089 20.531
0.14400141 -9.1440887 20.531
0.14400141 -9.1080885 20.531
0.14400141 -9.0720882 20.531
0.14400141 -9.036088 20.531
0.14400141 -9.0000877 20.531
0.14400141 -8.9640875 20.531
0.14314571 -8.8750343 20.409
0.14314571 -8.8392477 20.409
0.14314571 -8.8034611 20.409
0.14314571 -8.7676744 20.409
0.14314571 -8.7318888 20.409
0.14314571 -8.6961021 20.409
0.14400141 -8.7120848 20.531
0.14400141 -8.6760845 20.531
0.14400141 -8.6400843 20.531
0.14400141 -8.604084 20.531
0.14400141 -8.5680838 20.531
0.14487112 -8.5836143 20.655001
0.14487112 -8.5473957 20.655001
0.14400141 -8.4600821 20.531
0.14400141 -8.4240818 20.531
0.14487112 -8.4387426 20.655001
0.14400141 -8.3520813 20.531
0.14314571 -8.2666645 20.409
0.14314571 -8.2308788 20.409
0.17578468 -10.89865 20.050001
0.17578468 -10.863493 20.050001
0.17578468 -10.828336 20.050001
0.17578468 -10.793179 20.050001
0.17578468 -10.758022 20.050001
0.17578468 -10.441609 20.050001
0.17578468 -10.406453 20.050001
0.17578468 -10.371296 20.050001
0.17578468 -10.336139 20.050001
0.17578468 -10.300982 20.050001
0.17578468 -10.265825 20.050001
0.17578468 -10.230668 20.050001
0.17578468 -10.195511 20.050001
0.17578468 -10.160355 20.050001
0.17578468 -10.125197 20.050001
0.17578468 -10.09004 20.050001
0.17578468 -10.054883 20.050001
0.18000175 -9.5760937 20.531
0.18000175 -9.468092 20.531
0.18000175 -9.4320917 20.531
0.18000175 -9.3960915 20.531
0.18000175 -9.3600912 20.531
0.17893215 -9.2686853 20.409
0.17893215 -9.2328987 20.409
0.17893215 -9.1971121 20.409
0.17893215 -9.1613255 20.409
0.17893215 -9.1255388 20.409
0.17893215 -9.0897532 20.409
0.17893215 -9.0539665 20.409
0.17893215 -9.0181799 20.409
0.18000175 -9.036088 20.531
0.18000175 -9.0000877 20.531
0.17893215 -8.910821 20.409
0.17893215 -8.8750343 20.409
0.17893215 -8.8392477 20.409
0.17893215 -8.8034611 20.409
0.17893215 -8.7676744 20.409
0.17893215 -8.7318888 20.409
0.17893215 -8.6961021 20.409
0.17893215 -8.6603155 20.409
0.18000175 -8.6760845 20.531
0.18000175 -8.6400843 20.531
0.18000175 -8.604084 20.531
0.18000175 -8.5680838 20.531
0.18000175 -8.5320835 20.531
0.17893215 -8.4455967 20.409
0.17893215 -8.409811 20.409
0.17893215 -8.3740244 20.409
0.18000175 -8.3880816 20.531
0.18000175 -8.3520813 20.531
0.17893215 -8.2666645 20.409
0.1778713 -8.1820793 20.288
0.1778713 -8.1465054 20.288
0.21471857 -9.3760443 20.409
0.21471857 -9.3402576 20.409
0.21471857 -9.304471 20.409
0.21344556 -9.2137327 20.288
0.21344556 -9.1781588 20.288
0.21344556 -9.1425848 20.288
0.21344556 -9.1070099 20.288
0.21344556 -9.0714359 20.288
0.21471857 -9.0897532 20.409
0.21471857 -9.0539665 20.409
0.21471857 -9.0181799 20.409
0.21471857 -8.9823933 20.409
0.21471857 -8.9466066 20.409
0.21471857 -8.910821 20.409
0.21471857 -8.8750343 20.409
0.21471857 -8.8392477 20.409
0.21344556 -8.7512674 20.288
0.21344556 -8.7156935 20.288
0.21344556 -8.6801195 20.288
0.21344556 -8.6445446 20.288
0.21471857 -8.6603155 20.409
0.21471857 -8.6245289 20.409
0.21344556 -8.5378218 20.288
0.21344556 -8.5022478 20.288
0.21471857 -8.51717 20.409
0.21600211 -8.5320835 20.531
0.21471857 -8.4455967 20.409
0.21471857 -8.409811 20.409
0.21471857 -8.3740244 20.409
0.21600211 -8.3880816 20.531
0.21471857 -8.3024511 20.409
0.21344556 -8.2176542 20.288
0.21344556 -8.1820793 20.288
0.21218306 -8.09832 20.168001
0.21218306 -8.0629568 20.168001
0.21218306 -8.0275927 20.168001
0.21094161 -7.9454675 20.050001
0.21094161 -7.9103103 20.050001
0.21094161 -7.8751535 20.050001
0.24609855 -9.9845695 20.050001
0.24609855 -9.246274 20.050001
0.24901982 -9.2493076 20.288
0.24901982 -9.2137327 20.288
0.24754691 -9.1238718 20.168001
0.24754691 -9.0885077 20.168001
0.24754691 -9.0531435 20.168001
0.24754691 -9.0177803 20.168001
0.24901982 -9.035862 20.288
0.24901982 -9.000288 20.288
0.24901982 -8.9647131 20.288
0.24901982 -8.9291391 20.288
0.24901982 -8.8935652 20.288
0.24901982 -8.8579903 20.288
0.24901982 -8.8224163 20.288
0.24754691 -8.734869 20.168001
0.24609855 -8.6486063 20.050001
0.24609855 -8.6134491 20.050001
0.24609855 -8.5782919 20.050001
0.24609855 -8.5431356 20.050001
0.24609855 -8.5079784 20.050001
0.24609855 -8.4728212 20.050001
0.24609855 -8.437664 20.050001
0.24609855 -8.4025078 20.050001
0.24754691 -8.4165945 20.168001
0.24901982 -8.4310999 20.288
0.24754691 -8.3458672 20.168001
0.24754691 -8.310503 20.168001
0.24901982 -8.3243771 20.288
0.250505 -8.3382378 20.409
0.24901982 -8.2532282 20.288
0.24754691 -8.1690483 20.168001
0.24754691 -8.1336842 20.168001
0.24754691 -8.09832 20.168001
0.24754691 -8.0629568 20.168001
0.24754691 -8.0275927 20.168001
0.24609855 -7.9454675 20.050001
0.24609855 -7.9103103 20.050001
0.24609855 -7.8751535 20.050001
0.24609855 -7.8399963 20.050001
0.24609855 -7.8048396 20.050001
0.24609855 -7.7696824 20.050001
0.28125548 -9.246274 20.050001
0.28291073 -9.1945992 20.168001
0.28125548 -9.1056461 20.050001
0.28125548 -9.0704889 20.050001
0.28125548 -9.0353327 20.050001
0.28125548 -9.0001755 20.050001
0.28125548 -8.9650183 20.050001
0.28125548 -8.9298611 20.050001
0.28291073 -8.947052 20.168001
0.28291073 -8.9116888 20.168001
0.28291073 -8.8763247 20.168001
0.28291073 -8.8409605 20.168001
0.28291073 -8.8055973 20.168001
0.28291073 -8.7702332 20.168001
0.28291073 -8.734869 20.168001
0.28125548 -8.6486063 20.050001
0.28125548 -8.6134491 20.050001
0.28125548 -8.5079784 20.050001
0.28125548 -8.4728212 20.050001
0.28125548 -8.437664 20.050001
0.28125548 -8.4025078 20.050001
0.28291073 -8.4165945 20.168001
0.28291073 -8.3812313 20.168001
0.28291073 -8.3458672 20.168001
0.28291073 -8.310503 20.168001
0.28291073 -8.2751398 20.168001
0.28459406 -8.2888021 20.288
0.28459406 -8.2532282 20.288
0.28291073 -8.1690483 20.168001
0.28291073 -8.1336842 20.168001
0.28291073 -8.09832 20.168001
0.28291073 -8.0629568 20.168001
0.28291073 -8.0275927 20.168001
0.28125548 -7.9454675 20.050001
0.28125548 -7.9103103 20.050001
0.28125548 -7.8751535 20.050001
0.28125548 -7.8399963 20.050001
0.31641242 -9.246274 20.050001
0.31641242 -9.1408033 20.050001
0.31641242 -9.1056461 20.050001
0.31641242 -9.0704889 20.050001
0.31641242 -9.0353327 20.050001
0.31641242 -8.9298611 20.050001
0.31641242 -8.8947048 20.050001
0.31641242 -8.8595476 20.050001
0.31641242 -8.8243904 20.050001
0.31641242 -8.7892342 20.050001
0.31641242 -8.754077 20.050001
0.31641242 -8.7189198 20.050001
0.31641242 -8.6837626 20.050001
0.31641242 -8.6486063 20.050001
